860
0.0400000000 -7.3062972000 -9.8823211000 -10.1711860000 
0.4180000000 -7.9058985000 -10.1989030000 -7.9584788000 
0.1450000000 -4.7520795000 -9.0078074000 -5.9226723000 
-0.6830000000 -5.8502198000 -9.4256878000 -5.1711029000 
0.0400000000 -3.8882726000 -9.4342764000 -5.4042170000 
0.0400000000 -4.6589781000 -7.9148900000 -5.9468621000 
0.0400000000 -4.7843641000 -9.3873383000 -6.9512659000 
0.4180000000 -6.6277838000 -9.0769262000 -5.5869828000 
0.1450000000 -2.4343499000 3.3437923000 6.4598106000 
-0.6830000000 -2.2230490000 2.7291153000 5.2257446000 
0.0400000000 -3.4170292000 3.8152108000 6.3652447000 
0.0400000000 -1.6810525000 4.1122416000 6.6736986000 
0.0400000000 -2.4538060000 2.6217858000 7.2852907000 
0.4180000000 -1.3762739000 2.3038475000 5.2620115000 
0.1450000000 0.7057030700 5.8093632000 -6.8547412000 
-0.6830000000 1.3193948000 4.8928266000 -7.7084011000 
0.0400000000 1.0789790000 6.7829820000 -7.1857498000 
0.0400000000 0.9855519300 5.6496190000 -5.8059861000 
0.0400000000 -0.3875889800 5.7891532000 -6.9407410000 
0.4180000000 1.0224323000 4.0281083000 -7.4568594000 
0.1450000000 -1.1575476000 -10.9255090000 -6.2518069000 
-0.6830000000 -0.4630362100 -10.2320710000 -5.2607521000 
0.0400000000 -1.7450478000 -11.6684850000 -5.7043876000 
0.0400000000 -0.4825497800 -11.4371170000 -6.9491989000 
0.0400000000 -1.8320563000 -10.2731860000 -6.8197868000 
0.4180000000 0.0635492780 -9.5720938000 -5.6924166000 
0.1450000000 2.0077331000 -8.3847970000 -7.5609265000 
-0.6830000000 1.1654852000 -8.4573994000 -6.4515400000 
0.0400000000 1.8025175000 -9.3025148000 -8.1199585000 
0.0400000000 3.0668537000 -8.3615549000 -7.2755433000 
0.0400000000 1.7879399000 -7.5156123000 -8.1928279000 
0.4180000000 1.3099615000 -7.6759721000 -5.9341469000 
0.1450000000 -12.6942010000 -4.7765951000 -5.3250433000 
-0.6830000000 -11.4990060000 -4.2103402000 -4.8820315000 
0.0400000000 -12.9610360000 -4.1926870000 -6.2108694000 
0.0400000000 -13.4938940000 -4.6917849000 -4.5787075000 
0.0400000000 -12.5756450000 -5.8305496000 -5.6047125000 
0.4180000000 -11.2276140000 -4.6888645000 -4.1096598000 
0.1450000000 -4.7531664000 -12.3453810000 2.8559575000 
-0.6830000000 -6.0094016000 -11.7778420000 3.0684817000 
0.0400000000 -4.9176950000 -13.0848000000 2.0666376000 
0.0400000000 -4.3695938000 -12.8488330000 3.7521321000 
0.0400000000 -4.0161680000 -11.6072360000 2.5167467000 
0.4180000000 -5.9142418000 -11.1254350000 3.7500299000 
0.1450000000 10.5970180000 -5.3178619000 0.5830095400 
-0.6830000000 9.7853350000 -4.7389456000 -0.3923984500 
0.0400000000 11.3314260000 -4.5430438000 0.8220486200 
0.0400000000 11.1168190000 -6.2102004000 0.2125231500 
0.0400000000 10.0356180000 -5.5803072000 1.4880184000 
0.4180000000 9.1284175000 -5.3796244000 -0.6315399500 
0.1450000000 -2.6521078000 6.0811588000 -14.5648210000 
-0.6830000000 -3.4410144000 6.9942442000 -13.8653260000 
0.0400000000 -3.2719253000 5.7794673000 -15.4143190000 
0.0400000000 -2.4071751000 5.1983177000 -13.9612310000 
0.0400000000 -1.7226327000 6.5322717000 -14.9331480000 
0.4180000000 -2.9399918000 7.2853041000 -13.1146880000 
0.1450000000 -12.8302430000 -5.7406137000 0.3667350200 
-0.6830000000 -11.5753480000 -6.2588567000 0.0472741680 
0.0400000000 -12.8061410000 -4.7144056000 -0.0116207030 
0.0400000000 -13.0082790000 -5.7253706000 1.4492282000 
0.0400000000 -13.6433750000 -6.2909051000 -0.1222278700 
0.4180000000 -11.5506820000 -7.1542571000 0.3584773300 
0.1450000000 -6.8724036000 3.8736263000 -8.0183387000 
-0.6830000000 -7.2035659000 2.8609047000 -7.1182729000 
0.0400000000 -7.8273703000 4.1635607000 -8.4664610000 
0.0400000000 -6.1929875000 3.5222770000 -8.8048938000 
0.0400000000 -6.4245572000 4.7419660000 -7.5198321000 
0.4180000000 -6.3999535000 2.5769276000 -6.7026282000 
0.1450000000 -8.7892211000 1.4552590000 5.2504930000 
-0.6830000000 -8.0280453000 0.4542797700 4.6471330000 
0.0400000000 -9.7794490000 1.0072902000 5.3754292000 
0.0400000000 -8.8711488000 2.3494887000 4.6201265000 
0.0400000000 -8.3927226000 1.7438143000 6.2316221000 
0.4180000000 -7.1546065000 0.8005229800 4.5189957000 
0.1450000000 -1.3434423000 -7.2049010000 -7.4456859000 
-0.6830000000 -2.4362456000 -7.1526549000 -8.3108121000 
0.0400000000 -1.3087389000 -6.2111824000 -6.9894456000 
0.0400000000 -0.4029365500 -7.3940678000 -7.9780263000 
0.0400000000 -1.4700443000 -7.9620235000 -6.6622145000 
0.4180000000 -2.5057011000 -7.9996624000 -8.7314697000 
0.1450000000 5.4017637000 -5.8406219000 -4.1842433000 
-0.6830000000 4.2708436000 -5.0833213000 -3.8794354000 
0.0400000000 5.0276454000 -6.6437150000 -4.8260487000 
0.0400000000 5.8624514000 -6.2753075000 -3.2884005000 
0.0400000000 6.1560475000 -5.2595916000 -4.7288079000 
0.4180000000 4.5495350000 -4.3697225000 -3.3205931000 
0.1450000000 3.0545980000 1.4510551000 2.6290986000 
-0.6830000000 4.1463175000 0.8277855900 3.2333138000 
0.0400000000 3.2400686000 1.3464824000 1.5560181000 
0.0400000000 2.9919571000 2.5159536000 2.8855918000 
0.0400000000 2.1052181000 0.9647141700 2.8845179000 
0.4180000000 4.0271849000 0.8941570600 4.1717164000 
0.1450000000 -14.0956960000 -2.6731642000 -2.5015932000 
-0.6830000000 -15.1067360000 -3.2816398000 -3.2451975000 
0.0400000000 -13.2183080000 -3.3059364000 -2.6647684000 
0.0400000000 -14.3299210000 -2.6449209000 -1.4301174000 
0.0400000000 -13.8809060000 -1.6549178000 -2.8481906000 
0.4180000000 -15.8926040000 -2.7629450000 -3.1330947000 
0.1450000000 -12.4175360000 -7.3995773000 -8.1890052000 
-0.6830000000 -12.1348860000 -7.5667318000 -9.5445715000 
0.0400000000 -12.1746480000 -8.3663767000 -7.7382942000 
0.0400000000 -13.4759520000 -7.1711298000 -8.0121181000 
0.0400000000 -11.8007320000 -6.6174752000 -7.7297025000 
0.4180000000 -12.3316890000 -6.7468789000 -9.9785152000 
0.1450000000 -9.5360623000 -4.7814096000 1.3428149000 
-0.6830000000 -8.9661761000 -5.0387758000 2.5895652000 
0.0400000000 -8.8044412000 -5.1626549000 0.6243303200 
0.0400000000 -9.6895596000 -3.7086477000 1.1715210000 
0.0400000000 -10.4895830000 -5.3059673000 1.2059692000 
0.4180000000 -9.5706478000 -4.7228642000 3.2483616000 
0.1450000000 1.5141561000 -0.6138077000 -0.0626019610 
-0.6830000000 1.9128962000 -1.7267890000 -0.8026512100 
0.0400000000 2.3577669000 0.0789084870 -0.1354173100 
0.0400000000 1.3354079000 -0.8601835900 0.9914708200 
0.0400000000 0.6159152800 -0.1398941400 -0.4769178800 
0.4180000000 1.2065994000 -2.3585439000 -0.7676102100 
0.1450000000 -10.1134160000 2.9110853000 -5.4264356000 
-0.6830000000 -10.6271240000 4.1451868000 -5.0283259000 
0.0400000000 -10.0876360000 2.3170795000 -4.5081072000 
0.0400000000 -9.0979730000 2.9972309000 -5.8328527000 
0.0400000000 -10.7537790000 2.4136273000 -6.1650557000 
0.4180000000 -10.6681570000 4.6970472000 -5.7983686000 
0.1450000000 -8.2156865000 1.5839407000 -13.4691880000 
-0.6830000000 -8.0673343000 0.7672317400 -12.3483090000 
0.0400000000 -7.6283900000 1.0882256000 -14.2477670000 
0.0400000000 -7.8192964000 2.5930928000 -13.3012390000 
0.0400000000 -9.2610600000 1.6590375000 -13.7926770000 
0.4180000000 -8.5639517000 1.1608407000 -11.6428730000 
0.1450000000 -9.9952268000 -1.2964987000 -6.0058416000 
-0.6830000000 -10.9608050000 -1.5074384000 -5.0216904000 
0.0400000000 -9.8533728000 -0.2118402400 -6.0210248000 
0.0400000000 -10.3314130000 -1.6335037000 -6.9943383000 
0.0400000000 -9.0434703000 -1.7857458000 -5.7652420000 
0.4180000000 -11.1165800000 -2.4415376000 -4.9727972000 
0.1450000000 -10.2479850000 1.3130904000 -0.7406483900 
-0.6830000000 -9.5442950000 0.2520873900 -0.1710109100 
0.0400000000 -10.5105680000 1.9528700000 0.1070363900 
0.0400000000 -11.1647510000 0.9795041700 -1.2426276000 
0.0400000000 -9.6369881000 1.8821586000 -1.4519390000 
0.4180000000 -9.2941672000 -0.3325258500 -0.8744749400 
0.1450000000 0.7176172300 -5.8509825000 0.7453964700 
-0.6830000000 1.5381943000 -6.3876546000 1.7373791000 
0.0400000000 1.0768938000 -6.3065754000 -0.1820684800 
0.0400000000 0.8121644600 -4.7601560000 0.6755409200 
0.0400000000 -0.3376986600 -6.1101724000 0.8944530900 
0.4180000000 1.2607328000 -6.0182864000 2.5654978000 
0.1450000000 -5.0681458000 -4.4163823000 7.2308212000 
-0.6830000000 -6.3873288000 -4.8494410000 7.3635201000 
0.0400000000 -4.4770475000 -5.1805970000 7.7440624000 
0.0400000000 -4.9015645000 -3.4440265000 7.7109207000 
0.0400000000 -4.7545850000 -4.3560780000 6.1814726000 
0.4180000000 -6.9398970000 -4.2126127000 6.9295659000 
0.1450000000 -2.1684941000 6.3412884000 -4.2080450000 
-0.6830000000 -2.3498819000 7.1252481000 -3.0687912000 
0.0400000000 -2.9575278000 6.6672543000 -4.8921562000 
0.0400000000 -2.2884807000 5.2712612000 -3.9974103000 
0.0400000000 -1.1896391000 6.5069282000 -4.6744106000 
0.4180000000 -1.6822388000 6.8755159000 -2.4434229000 
0.1450000000 -9.8982157000 1.7228276000 -9.3027191000 
-0.6830000000 -8.5932790000 1.3539461000 -8.9764402000 
0.0400000000 -10.1924470000 1.0198101000 -10.0875960000 
0.0400000000 -9.9536049000 2.7470811000 -9.6920226000 
0.0400000000 -10.5822950000 1.6260174000 -8.4508074000 
0.4180000000 -8.2949083000 1.9407742000 -8.2939408000 
0.1450000000 -0.2331638800 1.1094674000 -9.8068086000 
-0.6830000000 -0.8421554900 1.3904864000 -11.0297360000 
0.0400000000 -0.5790000700 1.9051886000 -9.1404284000 
0.0400000000 0.8615494400 1.1402073000 -9.8729645000 
0.0400000000 -0.5404230800 0.1366718600 -9.4038814000 
0.4180000000 -0.5691627300 0.7207615400 -11.6430400000 
0.1450000000 -2.8336058000 8.7501639000 -10.8386500000 
-0.6830000000 -2.1168535000 7.8094100000 -11.5780010000 
0.0400000000 -3.0440718000 9.5538746000 -11.5504010000 
0.0400000000 -2.2494107000 9.1499749000 -10.0004430000 
0.0400000000 -3.7782539000 8.3450169000 -10.4557840000 
0.4180000000 -1.9115394000 7.0886990000 -10.9969510000 
0.1450000000 0.2106486900 -1.8513843000 -11.5770250000 
-0.6830000000 0.3599454700 -0.7935104200 -12.4736890000 
0.0400000000 0.8869409100 -1.6077103000 -10.7523510000 
0.0400000000 0.5052487700 -2.8119969000 -12.0176540000 
0.0400000000 -0.8149639200 -1.9314328000 -11.1964980000 
0.4180000000 -0.2126205100 -0.9631332100 -13.2102990000 
0.1450000000 -9.6088491000 -0.7097537700 1.6388365000 
-0.6830000000 -10.0934950000 -0.6839528900 2.9464468000 
0.0400000000 -10.4209670000 -1.1535463000 1.0554426000 
0.0400000000 -8.7099070000 -1.3313836000 1.5429199000 
0.0400000000 -9.3917867000 0.2951920700 1.2566604000 
0.4180000000 -9.4175600000 -0.3035561000 3.4919806000 
0.1450000000 -11.3804750000 -13.8505520000 -2.9671467000 
-0.6830000000 -10.6308560000 -12.7852600000 -3.4657599000 
0.0400000000 -11.9190560000 -13.4292410000 -2.1131781000 
0.0400000000 -10.7466760000 -14.6783170000 -2.6253504000 
0.0400000000 -12.1009910000 -14.2308050000 -3.7015547000 
0.4180000000 -10.1440590000 -13.1064460000 -4.2134672000 
0.1450000000 -11.0807620000 3.8969439000 6.9347543000 
-0.6830000000 -10.5685250000 5.1647037000 6.6594488000 
0.0400000000 -11.0674750000 3.8283602000 8.0265214000 
0.0400000000 -10.4581980000 3.0984180000 6.5122722000 
0.0400000000 -12.1097120000 3.7776382000 6.5740358000 
0.4180000000 -10.5617550000 5.2693312000 5.7170028000 
0.1450000000 -5.5147223000 -9.2142685000 5.4852179000 
-0.6830000000 -6.2264341000 -9.2973910000 4.2885771000 
0.0400000000 -4.5150961000 -9.5811929000 5.2343195000 
0.0400000000 -5.9485298000 -9.8470952000 6.2694766000 
0.0400000000 -5.4432352000 -8.1841041000 5.8550032000 
0.4180000000 -7.1058614000 -8.9865814000 4.4594660000 
0.1450000000 11.1806880000 3.0071427000 -8.0537951000 
-0.6830000000 9.8627231000 2.8777127000 -7.6160632000 
0.0400000000 11.5370990000 3.9259147000 -7.5787517000 
0.0400000000 11.2462190000 3.1119562000 -9.1439516000 
0.0400000000 11.8080380000 2.1651707000 -7.7366100000 
0.4180000000 9.5107551000 2.0880496000 -8.0056099000 
0.1450000000 4.2846664000 -8.4570570000 -1.5392935000 
-0.6830000000 3.6336823000 -9.6528813000 -1.2366102000 
0.0400000000 4.4033903000 -7.9586548000 -0.5726831200 
0.0400000000 3.6908912000 -7.8201386000 -2.2067410000 
0.0400000000 5.2717053000 -8.6236943000 -1.9877086000 
0.4180000000 3.5091207000 -10.1220520000 -2.0512023000 
0.1450000000 -7.8727306000 -1.8251156000 5.3779665000 
-0.6830000000 -8.1272546000 -3.1488466000 5.7362227000 
0.0400000000 -6.9553642000 -1.5683223000 5.9158625000 
0.0400000000 -8.6789451000 -1.1496251000 5.6901405000 
0.0400000000 -7.7075695000 -1.7113163000 4.2996061000 
0.4180000000 -8.9197594000 -3.4162226000 5.2894082000 
0.1450000000 -13.4343140000 0.1242610700 -5.9173448000 
-0.6830000000 -14.8055830000 -0.0334683540 -6.1176890000 
0.0400000000 -13.2779350000 1.2067962000 -5.9396778000 
0.0400000000 -12.8431210000 -0.3454167100 -6.7133446000 
0.0400000000 -13.1081690000 -0.2717172100 -4.9478504000 
0.4180000000 -14.9888380000 -0.9637718600 -6.1054174000 
0.1450000000 0.5839326600 2.1980610000 9.2233220000 
-0.6830000000 0.1324508800 3.3517186000 8.5825185000 
0.0400000000 0.0674522750 2.2016143000 10.1877240000 
0.0400000000 1.6680594000 2.2151776000 9.3909435000 
0.0400000000 0.3211444900 1.2870389000 8.6718954000 
0.4180000000 0.5569085800 3.3901963000 7.7354332000 
0.1450000000 -14.0006470000 -1.4494726000 0.7574657900 
-0.6830000000 -14.9578510000 -1.7737321000 -0.2037873200 
0.0400000000 -13.2695110000 -2.2611936000 0.6992865200 
0.0400000000 -14.4251580000 -1.4137246000 1.7685222000 
0.0400000000 -13.5042230000 -0.4950696200 0.5435308200 
0.4180000000 -15.6167330000 -1.0919262000 -0.1891896000 
0.1450000000 -3.9893077000 -8.4433973000 1.8338469000 
-0.6830000000 -4.6003305000 -7.6315235000 2.7893067000 
0.0400000000 -3.3718238000 -7.7569781000 1.2470081000 
0.0400000000 -4.7200682000 -8.9291901000 1.1752769000 
0.0400000000 -3.3509255000 -9.2109030000 2.2882631000 
0.4180000000 -5.1494986000 -8.1884992000 3.3253937000 
0.1450000000 -0.1813546300 6.4824492000 -0.0353313550 
-0.6830000000 -0.5941850000 6.0436058000 -1.2932578000 
0.0400000000 -0.0274862900 7.5585393000 -0.1585855600 
0.0400000000 0.7597976500 6.0137204000 0.2781138200 
0.0400000000 -0.9421798200 6.3084372000 0.7353533300 
0.4180000000 -0.7409766400 5.1086909000 -1.2333886000 
0.1450000000 -4.5040658000 -7.0470646000 -14.9077140000 
-0.6830000000 -5.3815185000 -7.3555572000 -13.8683380000 
0.0400000000 -4.1208474000 -8.0169409000 -15.2383500000 
0.0400000000 -3.6682715000 -6.4208486000 -14.5715270000 
0.0400000000 -5.0100296000 -6.5500372000 -15.7444070000 
0.4180000000 -5.7409248000 -6.5383635000 -13.5486210000 
0.1450000000 -9.7014742000 -1.5697985000 8.2162873000 
-0.6830000000 -8.3923326000 -2.0450594000 8.2915811000 
0.0400000000 -9.8503435000 -1.0299242000 9.1560800000 
0.0400000000 -10.4336440000 -2.3837041000 8.1441366000 
0.0400000000 -9.8457918000 -0.8825231100 7.3737221000 
0.4180000000 -8.2176573000 -2.5229942000 7.4914165000 
0.1450000000 -3.6288298000 -16.2671240000 -4.7118142000 
-0.6830000000 -3.5793288000 -16.1360200000 -3.3240989000 
0.0400000000 -4.6846855000 -16.1272710000 -4.9617077000 
0.0400000000 -3.3043264000 -17.2606690000 -5.0454093000 
0.0400000000 -3.0287118000 -15.5041640000 -5.2225399000 
0.4180000000 -2.6756407000 -16.2502810000 -3.0604881000 
0.1450000000 -3.1441901000 4.1626102000 -7.4344275000 
-0.6830000000 -2.7842010000 5.5101044000 -7.4421009000 
0.0400000000 -2.2144761000 3.6304357000 -7.6563723000 
0.0400000000 -3.8899732000 3.9291660000 -8.2045125000 
0.0400000000 -3.5250386000 3.8402271000 -6.4576398000 
0.4180000000 -3.5651674000 6.0133840000 -7.2523690000 
0.1450000000 7.0576817000 -1.8644552000 -4.6652739000 
-0.6830000000 5.7652797000 -2.3751837000 -4.7846295000 
0.0400000000 7.3350956000 -1.5826485000 -5.6853049000 
0.0400000000 7.7655772000 -2.6136372000 -4.2893339000 
0.0400000000 7.0961588000 -0.9792172300 -4.0187743000 
0.4180000000 5.4813967000 -2.6339484000 -3.9176522000 
0.1450000000 -1.6231486000 -11.8079420000 1.5591796000 
-0.6830000000 -2.9432289000 -11.9208820000 1.1232615000 
0.0400000000 -1.4010435000 -12.7789680000 2.0115205000 
0.0400000000 -1.5021197000 -11.0193350000 2.3122873000 
0.0400000000 -0.9271646600 -11.6229210000 0.7318566800 
0.4180000000 -3.1805544000 -11.0957510000 0.7207280700 
0.1450000000 -6.0531156000 0.5072730200 8.0900633000 
-0.6830000000 -4.7898161000 0.6287270900 7.5115175000 
0.0400000000 -5.8606068000 0.0807542690 9.0789307000 
0.0400000000 -6.7048200000 -0.1687722200 7.5226439000 
0.0400000000 -6.5534524000 1.4769360000 8.2018981000 
0.4180000000 -4.9084881000 0.9978371700 6.6461428000 
0.1450000000 -1.5278171000 8.4824971000 -7.6941941000 
-0.6830000000 -2.7775183000 8.9130072000 -8.1395059000 
0.0400000000 -0.8136783500 9.0101310000 -8.3332890000 
0.0400000000 -1.3952554000 7.4002761000 -7.8164507000 
0.0400000000 -1.3460784000 8.7494093000 -6.6459479000 
0.4180000000 -3.4326883000 8.4782650000 -7.6094601000 
0.1450000000 -2.3436835000 -6.4594635000 4.5833053000 
-0.6830000000 -1.4200767000 -5.9538290000 5.4980063000 
0.0400000000 -2.8808627000 -5.5775710000 4.2220019000 
0.0400000000 -3.0541099000 -7.1516008000 5.0523047000 
0.0400000000 -1.8581719000 -6.9627226000 3.7382607000 
0.4180000000 -0.9275362700 -6.6887251000 5.8393699000 
0.1450000000 0.4770935800 -0.0910833720 5.2805466000 
-0.6830000000 0.2474525200 1.2710753000 5.0877244000 
0.0400000000 -0.2315382600 -0.5850684700 4.6092370000 
0.0400000000 0.2773675000 -0.4022166300 6.3135167000 
0.0400000000 1.4995156000 -0.3820507700 5.0102131000 
0.4180000000 0.8447070100 1.7422951000 5.6537948000 
0.1450000000 -9.3289094000 -5.3994671000 -6.5714014000 
-0.6830000000 -7.9682622000 -5.6026287000 -6.3417120000 
0.0400000000 -9.7922540000 -6.3620147000 -6.3354994000 
0.0400000000 -9.5380146000 -5.1413679000 -7.6170495000 
0.0400000000 -9.7484645000 -4.6230331000 -5.9200843000 
0.4180000000 -7.5233257000 -4.7877189000 -6.5344586000 
0.1450000000 -6.8171972000 5.0533744000 6.6479172000 
-0.6830000000 -5.8538773000 4.6733010000 5.7135979000 
0.0400000000 -7.7479554000 4.6174739000 6.2730642000 
0.0400000000 -6.9251885000 6.1433723000 6.7108706000 
0.0400000000 -6.6049475000 4.6561610000 7.6480477000 
0.4180000000 -5.0239574000 5.0314822000 6.0001937000 
0.1450000000 -15.2125860000 -4.3363399000 4.6291305000 
-0.6830000000 -14.7717010000 -4.5892914000 5.9279875000 
0.0400000000 -16.0114360000 -3.5988651000 4.7508029000 
0.0400000000 -15.6171790000 -5.2350493000 4.1471071000 
0.0400000000 -14.4211610000 -3.9161381000 3.9965415000 
0.4180000000 -14.0731310000 -5.2280034000 5.8710286000 
0.1450000000 -6.4773250000 -3.0060370000 10.3100950000 
-0.6830000000 -6.3392184000 -4.3752110000 10.0827570000 
0.0400000000 -6.5621747000 -2.9170329000 11.3971620000 
0.0400000000 -7.3804893000 -2.5975403000 9.8398326000 
0.0400000000 -5.6052064000 -2.4377657000 9.9643116000 
0.4180000000 -6.2612993000 -4.5007366000 9.1460767000 
0.1450000000 4.6744476000 3.1359843000 -3.1939632000 
-0.6830000000 4.9809139000 3.1054715000 -1.8336173000 
0.0400000000 3.9280757000 2.3466718000 -3.3233858000 
0.0400000000 5.5483644000 2.9167747000 -3.8200115000 
0.0400000000 4.2457831000 4.0976435000 -3.5014528000 
0.4180000000 5.6291603000 3.7788380000 -1.6737679000 
0.1450000000 0.4259787700 -7.9327680000 -3.2456232000 
-0.6830000000 -0.7768368000 -8.5770144000 -2.9565336000 
0.0400000000 0.6103265100 -7.2956180000 -2.3756273000 
0.0400000000 0.3553736300 -7.3088451000 -4.1453202000 
0.0400000000 1.2571025000 -8.6387305000 -3.3636933000 
0.4180000000 -0.9775900000 -9.1448665000 -3.6889542000 
0.1450000000 -11.5146860000 -3.1231421000 4.4992210000 
-0.6830000000 -10.8113880000 -4.3227765000 4.6071191000 
0.0400000000 -10.7399340000 -2.3647488000 4.3528139000 
0.0400000000 -12.0820980000 -2.8928287000 5.4095609000 
0.0400000000 -12.1973990000 -3.1179499000 3.6407540000 
0.4180000000 -11.4476970000 -5.0140033000 4.7356255000 
0.1450000000 -6.2293263000 -4.6047082000 -11.5645710000 
-0.6830000000 -6.4979539000 -5.1319747000 -12.8275920000 
0.0400000000 -5.2797979000 -4.0751383000 -11.6861690000 
0.0400000000 -6.1145547000 -5.3880553000 -10.8050210000 
0.0400000000 -7.0018003000 -3.8983936000 -11.2367090000 
0.4180000000 -7.3189137000 -5.6029878000 -12.7695490000 
0.1450000000 -10.0107370000 -5.4396905000 -12.5721340000 
-0.6830000000 -8.9094548000 -6.2867395000 -12.4493410000 
0.0400000000 -9.6843753000 -4.6678711000 -13.2754260000 
0.0400000000 -10.2810700000 -4.9714265000 -11.6174770000 
0.0400000000 -10.8886050000 -5.9564400000 -12.9788370000 
0.4180000000 -9.1485088000 -6.9768658000 -11.8445460000 
0.1450000000 1.0132585000 -1.2806417000 9.2514480000 
-0.6830000000 0.0437750180 -0.5238053200 8.5936537000 
0.0400000000 1.8750345000 -0.6113303000 9.3301854000 
0.0400000000 1.2973058000 -2.1743330000 8.6819249000 
0.0400000000 0.6929176900 -1.5829538000 10.2559760000 
0.4180000000 -0.7275204000 -1.0679393000 8.5029974000 
0.1450000000 -9.6577422000 -11.2865620000 -1.1901149000 
-0.6830000000 -10.6576940000 -10.9468430000 -0.2790277400 
0.0400000000 -9.3970750000 -10.3409080000 -1.6744965000 
0.0400000000 -10.0117000000 -11.9977210000 -1.9468758000 
0.0400000000 -8.7699875000 -11.7008470000 -0.6968081600 
0.4180000000 -10.9162070000 -11.7421770000 0.1679778700 
0.1450000000 -13.1916820000 3.0400451000 -8.2519888000 
-0.6830000000 -11.9748340000 3.3599674000 -8.8539205000 
0.0400000000 -13.5037830000 2.1135169000 -8.7428809000 
0.0400000000 -13.9515600000 3.8138108000 -8.4180948000 
0.0400000000 -13.0883330000 2.8651288000 -7.1741138000 
0.4180000000 -11.6640080000 4.1626673000 -8.4561019000 
0.1450000000 2.2219340000 4.2721431000 5.9490974000 
-0.6830000000 2.0766886000 2.9956992000 6.4922240000 
0.0400000000 1.2284405000 4.7214173000 6.0383244000 
0.0400000000 2.5138433000 4.2412503000 4.8919524000 
0.0400000000 2.9481071000 4.8790461000 6.5035615000 
0.4180000000 2.9201036000 2.5659362000 6.4360757000 
0.1450000000 -16.5602000000 -3.0600415000 -6.2161737000 
-0.6830000000 -15.2258750000 -2.6851167000 -6.0599661000 
0.0400000000 -16.7912690000 -2.8190611000 -7.2579858000 
0.0400000000 -17.2289100000 -2.4949843000 -5.5549198000 
0.0400000000 -16.7123880000 -4.1330865000 -6.0473409000 
0.4180000000 -14.9800980000 -2.8777907000 -5.1646063000 
0.1450000000 7.2897656000 -7.2513922000 -14.3502620000 
-0.6830000000 6.4850136000 -6.5972205000 -13.4176170000 
0.0400000000 7.8060635000 -8.0230932000 -13.7716860000 
0.0400000000 8.0297286000 -6.5790945000 -14.8021370000 
0.0400000000 6.7020412000 -7.7241957000 -15.1465830000 
0.4180000000 6.0145758000 -5.9147128000 -13.8781270000 
0.1450000000 -7.5031690000 -14.5078620000 1.6630244000 
-0.6830000000 -8.0930448000 -13.3112630000 2.0699517000 
0.0400000000 -8.3416400000 -15.1251860000 1.3272996000 
0.0400000000 -6.9848168000 -15.0146900000 2.4865263000 
0.0400000000 -6.8009887000 -14.3632860000 0.8328841800 
0.4180000000 -7.3981890000 -12.7405270000 2.3710072000 
0.1450000000 5.8673446000 -11.3564620000 2.2208264000 
-0.6830000000 5.3264295000 -10.1467470000 2.6560173000 
0.0400000000 6.5962566000 -11.6226620000 2.9919689000 
0.0400000000 6.3787296000 -11.2575020000 1.2552110000 
0.0400000000 5.1103009000 -12.1466200000 2.1458327000 
0.4180000000 4.6839558000 -9.8758291000 2.0133435000 
0.1450000000 5.9491031000 -1.1728543000 -9.2303214000 
-0.6830000000 5.7236539000 -2.5484668000 -9.1828338000 
0.0400000000 6.7267689000 -1.0497679000 -9.9898742000 
0.0400000000 6.3107050000 -0.7794949500 -8.2720754000 
0.0400000000 5.0535630000 -0.6155615800 -9.5311909000 
0.4180000000 5.0509576000 -2.7033351000 -8.5326860000 
0.1450000000 3.7917866000 -10.4606640000 -4.7230891000 
-0.6830000000 3.7450648000 -11.3259880000 -3.6301924000 
0.0400000000 4.6367748000 -9.7988589000 -4.5113183000 
0.0400000000 2.8763314000 -9.8633591000 -4.8173702000 
0.0400000000 3.9715039000 -10.9918410000 -5.6657679000 
0.4180000000 3.0219311000 -11.9228470000 -3.7717365000 
0.1450000000 -3.2123132000 7.8487712000 1.8018845000 
-0.6830000000 -3.9321977000 6.7572323000 1.3163926000 
0.0400000000 -3.9426987000 8.6623621000 1.8398644000 
0.0400000000 -2.3879760000 8.1304841000 1.1349322000 
0.0400000000 -2.8136543000 7.6689045000 2.8077715000 
0.4180000000 -3.3345192000 6.0227118000 1.2668088000 
0.1450000000 -11.9570730000 -9.0413707000 2.2965128000 
-0.6830000000 -11.4837100000 -8.7494858000 1.0174025000 
0.0400000000 -12.3751930000 -8.0961599000 2.6551082000 
0.0400000000 -11.1542120000 -9.3635244000 2.9713112000 
0.0400000000 -12.7428160000 -9.8065727000 2.2837815000 
0.4180000000 -11.1098600000 -9.5463571000 0.6646592300 
0.1450000000 -1.7933651000 -3.1237989000 -14.2736280000 
-0.6830000000 -1.4080991000 -1.7835563000 -14.2469540000 
0.0400000000 -0.8944081000 -3.6721783000 -13.9769940000 
0.0400000000 -2.1019667000 -3.4457527000 -15.2760410000 
0.0400000000 -2.6020410000 -3.3374756000 -13.5640670000 
0.4180000000 -2.1621016000 -1.2666480000 -14.4989160000 
0.1450000000 5.3782827000 0.2655677400 -1.8910285000 
-0.6830000000 5.8865217000 -0.7631891000 -1.0980943000 
0.0400000000 5.2314282000 -0.1937864700 -2.8729979000 
0.0400000000 6.0809072000 1.1032336000 -1.9824300000 
0.0400000000 4.4184481000 0.6423986700 -1.5171200000 
0.4180000000 6.0299234000 -0.4081906200 -0.2305632800 
0.1450000000 -5.0529417000 5.2139796000 -12.2013530000 
-0.6830000000 -4.7568015000 5.6330805000 -10.9044160000 
0.0400000000 -6.1209640000 5.4204253000 -12.3177420000 
0.0400000000 -4.8723304000 4.1408283000 -12.3408020000 
0.0400000000 -4.4885455000 5.7733516000 -12.9574290000 
0.4180000000 -3.8337702000 5.4723304000 -10.7582300000 
0.1450000000 4.5651226000 -5.2580443000 0.9107152300 
-0.6830000000 4.9326428000 -5.7482771000 -0.3422784500 
0.0400000000 5.1768910000 -5.8273497000 1.6167369000 
0.0400000000 3.5035281000 -5.4305774000 1.1274389000 
0.0400000000 4.7834100000 -4.1885374000 1.0183976000 
0.4180000000 4.4237425000 -5.2794488000 -0.9906748700 
0.1450000000 -4.5677358000 11.7258740000 -6.1931091000 
-0.6830000000 -5.7784578000 12.4056660000 -6.0610951000 
0.0400000000 -4.3194808000 11.4103500000 -5.1754396000 
0.0400000000 -3.7698228000 12.3728310000 -6.5784707000 
0.0400000000 -4.6555909000 10.8428630000 -6.8378282000 
0.4180000000 -6.0345338000 12.6993740000 -6.9255933000 
0.1450000000 -0.9156361600 7.2220791000 5.2359984000 
-0.6830000000 -0.0769813700 7.4020070000 4.1361450000 
0.0400000000 -0.4306749700 6.4369007000 5.8234878000 
0.0400000000 -1.9187247000 6.8892800000 4.9414171000 
0.0400000000 -1.0039285000 8.1308641000 5.8437841000 
0.4180000000 -0.4606164800 8.0794674000 3.5947871000 
0.1450000000 -10.0890350000 -10.7335240000 -12.5355840000 
-0.6830000000 -11.3159950000 -11.3171350000 -12.2203700000 
0.0400000000 -10.3527250000 -9.7982351000 -13.0381170000 
0.0400000000 -9.4965117000 -11.3578070000 -13.2159580000 
0.0400000000 -9.4928179000 -10.5122010000 -11.6419210000 
0.4180000000 -11.1351700000 -12.1368840000 -11.7793370000 
0.1450000000 -8.4542362000 -17.8053170000 -8.6109297000 
-0.6830000000 -8.8720802000 -16.7268020000 -9.3904199000 
0.0400000000 -7.8782053000 -18.4319030000 -9.2982544000 
0.0400000000 -9.2996046000 -18.3815810000 -8.2147045000 
0.0400000000 -7.8128381000 -17.4918350000 -7.7782067000 
0.4180000000 -9.3788246000 -16.1523700000 -8.8314594000 
0.1450000000 -12.2773920000 4.3836482000 1.1167189000 
-0.6830000000 -11.5926020000 5.5703058000 1.3780623000 
0.0400000000 -11.8234740000 3.6521951000 1.7918275000 
0.0400000000 -12.1477830000 4.0509841000 0.0792911360 
0.0400000000 -13.3491140000 4.4660766000 1.3351395000 
0.4180000000 -11.9558250000 6.2381007000 0.8112151300 
0.1450000000 4.4074953000 6.1032997000 -6.6612764000 
-0.6830000000 3.9006509000 4.8399668000 -6.9653988000 
0.0400000000 5.4639705000 5.9271517000 -6.4384148000 
0.0400000000 3.9190526000 6.5448232000 -5.7836648000 
0.0400000000 4.3235343000 6.7985297000 -7.5054893000 
0.4180000000 2.9800565000 4.9447663000 -7.1671899000 
0.1450000000 -2.6190158000 -14.6907750000 7.4296773000 
-0.6830000000 -1.4652433000 -15.4677280000 7.5323726000 
0.0400000000 -2.5817889000 -14.0303150000 8.3010229000 
0.0400000000 -3.5318559000 -15.2979490000 7.4718891000 
0.0400000000 -2.6326469000 -14.0867970000 6.5141906000 
0.4180000000 -1.4550600000 -16.0596490000 6.7916136000 
0.1450000000 -5.1634077000 1.6546862000 -11.0776950000 
-0.6830000000 -5.2671008000 1.0847531000 -12.3464810000 
0.0400000000 -4.1078716000 1.9273422000 -10.9863760000 
0.0400000000 -5.4262739000 0.9455983700 -10.2828260000 
0.0400000000 -5.7829122000 2.5539572000 -10.9746650000 
0.4180000000 -6.1724967000 0.8316558500 -12.4705670000 
0.1450000000 -8.1388236000 -5.8468780000 12.7626750000 
-0.6830000000 -8.7070577000 -5.3196475000 11.6031360000 
0.0400000000 -8.9951146000 -6.1313228000 13.3812970000 
0.0400000000 -7.5318308000 -5.1070828000 13.2993170000 
0.0400000000 -7.5255850000 -6.7330838000 12.5585510000 
0.4180000000 -7.9962449000 -5.0580295000 11.0326110000 
0.1450000000 -5.6286091000 7.8294086000 -6.2315433000 
-0.6830000000 -4.9389934000 7.2737956000 -7.3090952000 
0.0400000000 -4.8523160000 8.0400820000 -5.4900438000 
0.0400000000 -6.3601651000 7.1320906000 -5.8045823000 
0.0400000000 -6.1383400000 8.7623601000 -6.5014807000 
0.4180000000 -5.5770299000 7.0741688000 -7.9815958000 
0.1450000000 0.2505597800 8.2905288000 -12.4521300000 
-0.6830000000 1.5847250000 7.9433119000 -12.6638810000 
0.0400000000 0.2335392200 8.7039832000 -11.4394100000 
0.0400000000 -0.4162245900 7.4206493000 -12.5014130000 
0.0400000000 -0.0984907700 9.0500182000 -13.1623610000 
0.4180000000 1.6476220000 7.5780198000 -13.5366940000 
0.1450000000 -9.5699801000 -12.1587500000 -9.3085486000 
-0.6830000000 -10.5597090000 -12.9208460000 -9.9290658000 
0.0400000000 -9.7715242000 -11.1335030000 -9.6327138000 
0.0400000000 -8.5618248000 -12.4501650000 -9.6285830000 
0.0400000000 -9.6283852000 -12.2138330000 -8.2146359000 
0.4180000000 -10.4236550000 -13.8240460000 -9.6742801000 
0.1450000000 1.3063783000 -8.6041296000 -11.1156890000 
-0.6830000000 2.0104099000 -9.6547410000 -10.5275150000 
0.0400000000 2.0267379000 -7.7817743000 -11.1563080000 
0.0400000000 0.4397815200 -8.2996187000 -10.5156870000 
0.0400000000 0.9712742300 -8.8463371000 -12.1316280000 
0.4180000000 1.4207480000 -10.3952870000 -10.4719470000 
0.1450000000 0.7341338300 -12.2836230000 -2.5540165000 
-0.6830000000 1.1671414000 -12.0489900000 -3.8589472000 
0.0400000000 1.4426163000 -13.0177850000 -2.1591818000 
0.0400000000 -0.2793274600 -12.7027630000 -2.5234038000 
0.0400000000 0.7656824100 -11.3773910000 -1.9368954000 
0.4180000000 0.5779473500 -11.4131010000 -4.2432559000 
0.1450000000 -12.4469120000 -1.5924302000 11.6848620000 
-0.6830000000 -12.3585140000 -2.0314210000 10.3639290000 
0.0400000000 -13.0685440000 -0.6937098100 11.6328010000 
0.0400000000 -11.4655980000 -1.3326489000 12.1011070000 
0.0400000000 -12.9280790000 -2.3317955000 12.3367110000 
0.4180000000 -11.8247380000 -2.8151745000 10.3606540000 
0.1450000000 -15.4280390000 -4.8481232000 -9.0514155000 
-0.6830000000 -14.6220200000 -3.7141208000 -8.9526050000 
0.0400000000 -15.2292840000 -5.2377423000 -10.0541760000 
0.0400000000 -16.4944150000 -4.6071281000 -8.9592986000 
0.0400000000 -15.1671480000 -5.6091126000 -8.3058147000 
0.4180000000 -14.7622780000 -3.3405564000 -8.0923858000 
0.1450000000 -4.9227350000 6.8675971000 -1.7708563000 
-0.6830000000 -5.7552448000 7.0370006000 -0.6646812800 
0.0400000000 -5.6094034000 6.7065738000 -2.6071546000 
0.0400000000 -4.2667595000 5.9945263000 -1.6651968000 
0.0400000000 -4.3089238000 7.7549379000 -1.9682238000 
0.4180000000 -5.1988847000 7.1811099000 0.0895691070 
0.1450000000 2.2204013000 -8.4927995000 2.1227086000 
-0.6830000000 2.6562413000 -9.6215419000 1.4288948000 
0.0400000000 1.8979816000 -8.8775055000 3.0947595000 
0.0400000000 1.3735388000 -8.0031418000 1.6259389000 
0.0400000000 3.0229574000 -7.7594636000 2.2683480000 
0.4180000000 2.9478152000 -9.3337410000 0.5737031700 
0.1450000000 0.6752577700 -11.2918100000 3.4679441000 
-0.6830000000 0.6884556100 -11.3807370000 2.0760709000 
0.0400000000 -0.0277082310 -12.0680390000 3.7843973000 
0.0400000000 0.3194286500 -10.3143470000 3.8167614000 
0.0400000000 1.6608327000 -11.4913420000 3.9060288000 
0.4180000000 1.2896896000 -10.7212600000 1.7554369000 
0.1450000000 9.1778838000 -2.3468187000 5.2708445000 
-0.6830000000 8.1104987000 -2.5975006000 4.4087312000 
0.0400000000 8.7409320000 -2.4099740000 6.2718038000 
0.0400000000 9.6038726000 -1.3467584000 5.1220678000 
0.0400000000 9.9750095000 -3.0938528000 5.1727552000 
0.4180000000 8.4451769000 -2.5530721000 3.5226084000 
0.1450000000 -10.3747130000 -7.5889838000 -3.5087873000 
-0.6830000000 -10.3009920000 -8.6371729000 -4.4259886000 
0.0400000000 -9.6831325000 -6.8361749000 -3.8984407000 
0.0400000000 -10.0530700000 -7.8939680000 -2.5051687000 
0.0400000000 -11.3829000000 -7.1613619000 -3.4472361000 
0.4180000000 -10.8893540000 -9.3179075000 -4.1266073000 
0.1450000000 -2.1347524000 -1.1267328000 11.4440270000 
-0.6830000000 -1.9693953000 -2.3179391000 10.7375720000 
0.0400000000 -1.9420096000 -1.3983806000 12.4860900000 
0.0400000000 -3.1537156000 -0.7301435000 11.3537400000 
0.0400000000 -1.4210695000 -0.3553147500 11.1299270000 
0.4180000000 -2.1275988000 -2.1289312000 9.8219057000 
0.1450000000 -12.2659520000 -7.3056587000 6.1995569000 
-0.6830000000 -12.5147950000 -6.4021525000 5.1665284000 
0.0400000000 -11.3975390000 -6.8920046000 6.7206962000 
0.0400000000 -12.0218900000 -8.3070618000 5.8235969000 
0.0400000000 -13.1088150000 -7.3807182000 6.8974378000 
0.4180000000 -13.2658020000 -6.7225326000 4.6843031000 
0.1450000000 -15.1608580000 6.6674845000 -8.9378804000 
-0.6830000000 -14.3146860000 7.5835929000 -8.3132756000 
0.0400000000 -14.5089350000 6.1160612000 -9.6218132000 
0.0400000000 -15.9549700000 7.1618777000 -9.5111876000 
0.0400000000 -15.6156830000 5.9692669000 -8.2246358000 
0.4180000000 -14.8408000000 8.0874231000 -7.7061865000 
0.1450000000 -15.2493940000 0.4295505400 -9.4740403000 
-0.6830000000 -15.3728790000 1.4751467000 -8.5592341000 
0.0400000000 -15.2659780000 0.9192634500 -10.4521730000 
0.0400000000 -16.0842870000 -0.2791526400 -9.4075872000 
0.0400000000 -14.3056600000 -0.1166638300 -9.3552724000 
0.4180000000 -15.3627330000 1.0947517000 -7.6906752000 
0.1450000000 -17.1351460000 2.0860754000 -4.7038767000 
-0.6830000000 -16.0356220000 1.4151340000 -4.1688270000 
0.0400000000 -17.6545520000 2.4967796000 -3.8330294000 
0.0400000000 -17.8093780000 1.4101853000 -5.2445284000 
0.0400000000 -16.8377760000 2.9043922000 -5.3709741000 
0.4180000000 -15.5519520000 1.0404433000 -4.8933048000 
0.1450000000 7.0621966000 -7.8111149000 4.5019687000 
-0.6830000000 6.9843832000 -8.1404973000 3.1488820000 
0.0400000000 7.8489676000 -7.0527110000 4.5534691000 
0.0400000000 7.3446704000 -8.6713043000 5.1216482000 
0.0400000000 6.1233516000 -7.3894189000 4.8812231000 
0.4180000000 6.3092615000 -8.7998587000 3.0558688000 
0.1450000000 -8.0788020000 10.9668630000 9.3064768000 
-0.6830000000 -7.6667727000 10.5527800000 8.0399227000 
0.0400000000 -7.2153572000 10.7756430000 9.9504745000 
0.0400000000 -8.9389746000 10.3912670000 9.6705016000 
0.0400000000 -8.3252707000 12.0353100000 9.3341331000 
0.4180000000 -8.3891927000 10.7015360000 7.4439538000 
0.1450000000 -0.3337487500 1.8611900000 -5.9189235000 
-0.6830000000 0.6567377600 2.2161855000 -6.8345143000 
0.0400000000 -0.9263300100 2.7718707000 -5.7910773000 
0.0400000000 0.0861054750 1.5611936000 -4.9507060000 
0.0400000000 -0.9774872800 1.0566146000 -6.2948858000 
0.4180000000 1.1984465000 1.4510750000 -6.9771834000 
0.1450000000 -6.1946588000 -14.5742310000 -8.3833679000 
-0.6830000000 -6.7636462000 -14.8656410000 -9.6230162000 
0.0400000000 -5.6460785000 -13.6419990000 -8.5471932000 
0.0400000000 -5.4967078000 -15.3543660000 -8.0547725000 
0.0400000000 -6.9518987000 -14.4201670000 -7.6049456000 
0.4180000000 -7.2531575000 -15.6721880000 -9.5278350000 
0.1450000000 9.9852400000 -1.4619908000 -8.2068347000 
-0.6830000000 10.0786640000 -0.1565565800 -7.7246463000 
0.0400000000 9.5986514000 -1.3502021000 -9.2241297000 
0.0400000000 9.2889291000 -2.0718294000 -7.6177941000 
0.0400000000 10.9603810000 -1.9630830000 -8.2399472000 
0.4180000000 10.4126610000 -0.2047698400 -6.8384634000 
0.1450000000 -11.8241000000 1.1074910000 8.2723707000 
-0.6830000000 -12.3207020000 2.0262717000 7.3479120000 
0.0400000000 -10.8040010000 1.4474269000 8.4740617000 
0.0400000000 -11.7947740000 0.0880984570 7.8677748000 
0.0400000000 -12.3995890000 1.1057749000 9.2061261000 
0.4180000000 -13.2101100000 1.7694314000 7.1425295000 
0.1450000000 -7.3595449000 12.0609730000 -4.4027932000 
-0.6830000000 -7.7149959000 10.8299940000 -3.8516683000 
0.0400000000 -8.0464206000 12.1918970000 -5.2441597000 
0.0400000000 -6.3264391000 12.0661530000 -4.7720993000 
0.0400000000 -7.4902687000 12.8868870000 -3.6929564000 
0.4180000000 -7.1414795000 10.6738320000 -3.1128244000 
0.1450000000 -17.2222550000 9.5202428000 -5.9919803000 
-0.6830000000 -16.8826610000 8.2367389000 -6.4193988000 
0.0400000000 -16.9341960000 10.1700250000 -6.8236306000 
0.0400000000 -16.6703720000 9.8158806000 -5.0910113000 
0.0400000000 -18.2977720000 9.6239675000 -5.8033227000 
0.4180000000 -17.1168260000 7.6352526000 -5.7247194000 
0.1450000000 -15.4645990000 -13.3219400000 -10.4666650000 
-0.6830000000 -14.9972720000 -13.1504640000 -9.1637477000 
0.0400000000 -16.0844580000 -14.2220780000 -10.4180670000 
0.0400000000 -14.6477530000 -13.4806530000 -11.1817120000 
0.0400000000 -16.0757930000 -12.4756170000 -10.8032200000 
0.4180000000 -14.4512880000 -12.3751780000 -9.1580115000 
0.1450000000 -5.7483263000 -15.5757250000 6.2281328000 
-0.6830000000 -4.8447783000 -14.6007950000 6.6506300000 
0.0400000000 -5.1850283000 -16.5119650000 6.2827796000 
0.0400000000 -6.0818260000 -15.4112910000 5.1959205000 
0.0400000000 -6.6264110000 -15.6393440000 6.8823577000 
0.4180000000 -5.2933471000 -13.7659130000 6.6196764000 
0.1450000000 -4.0644667000 7.3365950000 7.3284128000 
-0.6830000000 -3.5538723000 6.0542097000 7.1279824000 
0.0400000000 -4.6185426000 7.5562445000 6.4110306000 
0.0400000000 -3.2704748000 8.0819875000 7.4614093000 
0.0400000000 -4.7462056000 7.3825569000 8.1864402000 
0.4180000000 -3.0625221000 5.8200196000 7.9044666000 
0.1450000000 -4.1854663000 11.7355260000 1.4662159000 
-0.6830000000 -5.3781615000 11.0184520000 1.3730690000 
0.0400000000 -3.9515093000 12.0114280000 0.4337537300 
0.0400000000 -3.3682716000 11.1280690000 1.8747596000 
0.0400000000 -4.2934566000 12.6440060000 2.0712710000 
0.4180000000 -5.6213836000 10.7572340000 2.2515940000 
0.1450000000 -0.7769349000 1.5109211000 -15.9062190000 
-0.6830000000 -1.9002369000 2.3007152000 -15.6616580000 
0.0400000000 -1.1560676000 0.6731804200 -16.4989130000 
0.0400000000 -0.3302025100 1.1287249000 -14.9798940000 
0.0400000000 -0.0100339500 2.0460506000 -16.4794470000 
0.4180000000 -1.6169798000 3.0450585000 -15.1469580000 
0.1450000000 -3.6403959000 -20.7402730000 2.4553414000 
-0.6830000000 -2.7481002000 -20.2582650000 1.4978088000 
0.0400000000 -3.1808122000 -20.4784900000 3.4129881000 
0.0400000000 -3.7628921000 -21.8289340000 2.3958997000 
0.0400000000 -4.6258711000 -20.2644200000 2.3812310000 
0.4180000000 -3.1085690000 -20.4640210000 0.6452099500 
0.1450000000 7.0403198000 1.5900709000 1.1428788000 
-0.6830000000 6.3279144000 0.4236550500 1.4209842000 
0.0400000000 7.8875646000 1.2546546000 0.5374780500 
0.0400000000 7.4131066000 2.0744135000 2.0540114000 
0.0400000000 6.4461723000 2.3128819000 0.5704946400 
0.4180000000 5.5782420000 0.6679918900 1.9477566000 
0.1450000000 -7.9354882000 -12.3501450000 6.1591917000 
-0.6830000000 -6.8426015000 -12.4544120000 7.0194938000 
0.0400000000 -7.7614848000 -13.1205860000 5.4022377000 
0.0400000000 -7.9874649000 -11.3677680000 5.6734394000 
0.0400000000 -8.8859625000 -12.5480140000 6.6696187000 
0.4180000000 -6.9519005000 -11.8004350000 7.6974074000 
0.1450000000 -9.4233138000 -0.4339072100 -16.3787710000 
-0.6830000000 -8.0341457000 -0.4051928900 -16.5003440000 
0.0400000000 -9.7280126000 0.6117278000 -16.4819320000 
0.0400000000 -9.7453325000 -0.8120647100 -15.4004960000 
0.0400000000 -9.8967678000 -1.0315475000 -17.1672860000 
0.4180000000 -7.7236644000 -1.2973060000 -16.4170790000 
0.1450000000 4.3068637000 10.0528530000 -11.4433270000 
-0.6830000000 3.3738111000 9.1961215000 -10.8595300000 
0.0400000000 5.0735647000 10.1861840000 -10.6744130000 
0.0400000000 3.8718543000 11.0277310000 -11.6965080000 
0.0400000000 4.7627073000 9.6198005000 -12.3420830000 
0.4180000000 2.6854188000 9.0508821000 -11.4953120000 
0.1450000000 -8.1209249000 7.4705258000 8.3249862000 
-0.6830000000 -8.0709591000 6.3154257000 7.5448313000 
0.0400000000 -7.0741725000 7.7660930000 8.4424024000 
0.0400000000 -8.5594676000 7.2837657000 9.3131769000 
0.0400000000 -8.6757220000 8.2793828000 7.8340272000 
0.4180000000 -8.9632313000 6.0214284000 7.4159381000 
0.1450000000 0.8250591300 -14.7520730000 8.2210263000 
-0.6830000000 1.6282144000 -14.7841680000 7.0811568000 
0.0400000000 1.4055329000 -14.1761650000 8.9478104000 
0.0400000000 0.6340063800 -15.7556960000 8.6209799000 
0.0400000000 -0.1333396300 -14.2504400000 8.0395708000 
0.4180000000 1.1612902000 -15.2768430000 6.4190011000 
0.1450000000 0.9741916900 6.1339696000 -3.5028768000 
-0.6830000000 0.6102015100 6.6265965000 -4.7559624000 
0.0400000000 0.7099134600 5.0729981000 -3.5393921000 
0.0400000000 0.4194871200 6.6195061000 -2.6903026000 
0.0400000000 2.0496924000 6.2359028000 -3.3131442000 
0.4180000000 0.8231684000 7.5505226000 -4.7702766000 
0.1450000000 -12.4861520000 -10.6104660000 -5.7351864000 
-0.6830000000 -13.4807360000 -10.4346170000 -6.6970977000 
0.0400000000 -12.9072870000 -10.1748100000 -4.8243166000 
0.0400000000 -11.5600880000 -10.0832850000 -5.9963499000 
0.0400000000 -12.2587600000 -11.6694160000 -5.5619557000 
0.4180000000 -13.1572030000 -10.8007570000 -7.5097882000 
0.1450000000 -12.2890330000 -4.1990765000 -10.0089920000 
-0.6830000000 -12.2467190000 -5.1590817000 -11.0199280000 
0.0400000000 -11.3436030000 -4.3250940000 -9.4731578000 
0.0400000000 -13.1243660000 -4.3634746000 -9.3169569000 
0.0400000000 -12.3495620000 -3.1789695000 -10.4074960000 
0.4180000000 -13.0525000000 -5.0858881000 -11.5144530000 
0.1450000000 3.7531857000 -1.1765306000 -12.4071090000 
-0.6830000000 3.0296254000 0.0140577220 -12.3411320000 
0.0400000000 4.7839550000 -0.8819519700 -12.1889920000 
0.0400000000 3.7082747000 -1.6333453000 -13.4036140000 
0.0400000000 3.4172940000 -1.9082616000 -11.6622350000 
0.4180000000 2.1229685000 -0.1945332900 -12.5246020000 
0.1450000000 -6.8362639000 6.2003059000 2.2947781000 
-0.6830000000 -7.2226084000 6.3324027000 3.6284510000 
0.0400000000 -7.6813922000 6.5978975000 1.7251159000 
0.0400000000 -6.6687607000 5.1529284000 2.0143054000 
0.0400000000 -5.9349861000 6.7813450000 2.0641689000 
0.4180000000 -6.5145620000 5.9980046000 4.1632841000 
0.1450000000 -2.1681744000 -5.1493905000 8.4575193000 
-0.6830000000 -2.9622049000 -4.7129663000 7.3971215000 
0.0400000000 -2.5666016000 -4.6246378000 9.3308609000 
0.0400000000 -1.1129473000 -4.8813798000 8.3219217000 
0.0400000000 -2.2452326000 -6.2320453000 8.6156642000 
0.4180000000 -2.6509206000 -5.1457161000 6.6128855000 
0.1450000000 -6.8467855000 8.0749488000 -10.2096580000 
-0.6830000000 -6.5407724000 6.9468447000 -9.4486529000 
0.0400000000 -7.4610249000 8.6924084000 -9.5476245000 
0.0400000000 -7.4214605000 7.8234426000 -11.1097770000 
0.0400000000 -5.9497148000 8.6342418000 -10.5021420000 
0.4180000000 -6.0046865000 6.3788464000 -9.9864162000 
0.1450000000 -8.8973750000 -15.2668640000 -5.2031538000 
-0.6830000000 -9.2944845000 -13.9833040000 -5.5775466000 
0.0400000000 -9.8339465000 -15.8220830000 -5.0963778000 
0.0400000000 -8.3604746000 -15.2713090000 -4.2463674000 
0.0400000000 -8.2731355000 -15.7474400000 -5.9663450000 
0.4180000000 -8.5088868000 -13.4627560000 -5.6827342000 
0.1450000000 -11.0872850000 -14.4287600000 0.7917713300 
-0.6830000000 -10.8226980000 -13.3207400000 1.5965547000 
0.0400000000 -12.1197470000 -14.2847780000 0.4599159300 
0.0400000000 -11.0117940000 -15.3715320000 1.3478325000 
0.0400000000 -10.4260140000 -14.4744830000 -0.0821391860 
0.4180000000 -9.9311297000 -13.4033940000 1.9087591000 
0.1450000000 -9.0712572000 8.7098329000 -6.3105642000 
-0.6830000000 -7.9854377000 8.4299570000 -5.4810709000 
0.0400000000 -9.2052108000 7.7989709000 -6.9015161000 
0.0400000000 -8.8717933000 9.5537447000 -6.9826855000 
0.0400000000 -9.9865860000 8.9137081000 -5.7416208000 
0.4180000000 -7.8320145000 9.1976514000 -4.9459971000 
0.1450000000 -5.7200596000 -10.2155220000 9.3173582000 
-0.6830000000 -6.9428022000 -10.2979310000 8.6513971000 
0.0400000000 -5.4945757000 -11.2473010000 9.6027061000 
0.0400000000 -5.7811086000 -9.5935304000 10.2190890000 
0.0400000000 -4.9205781000 -9.8324157000 8.6714870000 
0.4180000000 -7.1794222000 -9.4197104000 8.3831849000 
0.1450000000 10.6760810000 -5.2779932000 -7.1863034000 
-0.6830000000 9.3802249000 -5.1614000000 -6.6837523000 
0.0400000000 11.3085310000 -5.3493498000 -6.2964998000 
0.0400000000 10.9724570000 -4.4002855000 -7.7741065000 
0.0400000000 10.8043990000 -6.1789964000 -7.7985275000 
0.4180000000 8.7931017000 -5.0966901000 -7.4255730000 
0.1450000000 -15.7247990000 -7.9969225000 4.3261250000 
-0.6830000000 -14.6986250000 -7.2467768000 3.7519781000 
0.0400000000 -15.3857520000 -8.1853083000 5.3490592000 
0.0400000000 -15.8761640000 -8.9536193000 3.8108185000 
0.0400000000 -16.6749730000 -7.4495531000 4.3515027000 
0.4180000000 -14.9512790000 -7.0583471000 2.8576305000 
0.1450000000 8.6445616000 -8.0329056000 -11.1557030000 
-0.6830000000 7.4963329000 -7.3239085000 -10.8031590000 
0.0400000000 9.2423682000 -8.0571472000 -10.2398010000 
0.0400000000 9.2134474000 -7.5313742000 -11.9485180000 
0.0400000000 8.4184923000 -9.0587700000 -11.4712740000 
0.4180000000 6.9439830000 -7.2779336000 -11.5725710000 
0.1450000000 0.4077496000 12.0484920000 -4.0817786000 
-0.6830000000 -0.0059126830 10.7209840000 -4.1913074000 
0.0400000000 1.3181348000 12.1014580000 -4.6861210000 
0.0400000000 0.6417561300 12.3248720000 -3.0461250000 
0.0400000000 -0.3360747800 12.7493020000 -4.4801252000 
0.4180000000 -0.7987064900 10.6278140000 -3.6794518000 
0.1450000000 -1.7843960000 -10.5089060000 -10.2224750000 
-0.6830000000 -2.7174608000 -9.7793611000 -9.4858963000 
0.0400000000 -0.8151937600 -10.1881910000 -9.8292505000 
0.0400000000 -1.8351920000 -10.2823270000 -11.2947630000 
0.0400000000 -1.8965558000 -11.5905750000 -10.0792910000 
0.4180000000 -3.5790549000 -10.0272210000 -9.7947955000 
0.1450000000 4.7780489000 -1.6457545000 3.2452623000 
-0.6830000000 5.0244509000 -2.7281466000 4.0897191000 
0.0400000000 3.7163291000 -1.4241137000 3.3883136000 
0.0400000000 4.9595620000 -1.8930610000 2.1918804000 
0.0400000000 5.3742068000 -0.7652333000 3.5142740000 
0.4180000000 5.9403095000 -2.9563329000 3.9984335000 
0.1450000000 -8.2922510000 6.3012301000 -4.1019151000 
-0.6830000000 -9.2714819000 5.7108217000 -3.3032174000 
0.0400000000 -7.8025954000 7.0247340000 -3.4434212000 
0.0400000000 -8.7224947000 6.8264221000 -4.9637657000 
0.0400000000 -7.5530374000 5.5735464000 -4.4584674000 
0.4180000000 -9.7248453000 5.0711801000 -3.8366194000 
0.1450000000 -3.7889685000 10.7379500000 -2.3825365000 
-0.6830000000 -2.5050502000 10.3193830000 -2.7314629000 
0.0400000000 -3.6879224000 11.8134970000 -2.2098382000 
0.0400000000 -4.1469417000 10.2540490000 -1.4652498000 
0.0400000000 -4.5150391000 10.5639200000 -3.1860449000 
0.4180000000 -2.5449882000 9.3856694000 -2.8920301000 
0.1450000000 -6.3633041000 -2.8696093000 -14.4261080000 
-0.6830000000 -6.9336036000 -3.0139400000 -15.6907500000 
0.0400000000 -7.1110718000 -3.2799082000 -13.7410270000 
0.0400000000 -6.1765883000 -1.8182925000 -14.1739350000 
0.0400000000 -5.4279018000 -3.4335566000 -14.3257290000 
0.4180000000 -6.3153686000 -2.6691273000 -16.3216920000 
